ply
format ascii 1.0
element vertex 1231
property float x
property float y
property float z
property uchar red
property uchar green
property uchar blue
end_header
0.670651 -0.0954612 -7.9195 255 255 255
0.0573035 -0.064812 -7.70514 255 255 255
1.57556 -0.137828 -7.98251 255 255 255
0.686356 -0.105533 -7.91451 255 255 255
1.87707 -0.121027 -7.13207 255 255 255
1.54984 -0.159411 -7.99244 255 255 255
0.282067 -0.104121 -7.77035 255 255 255
1.63434 -0.198617 -7.86342 255 255 255
1.66764 -0.204725 -7.82401 255 255 255
1.19414 -0.196886 -7.84053 255 255 255
1.59974 -0.228899 -7.95951 255 255 255
0.635169 -0.186768 -7.87361 255 255 255
2.55463 -0.186031 -6.03217 255 255 255
0.379779 -0.201231 -7.82915 255 255 255
0.38092 -0.200607 -7.82726 255 255 255
1.03681 -0.285093 -7.87571 255 255 255
1.58748 -0.3356 -7.99444 255 255 255
1.78866 -0.352344 -7.81589 255 255 255
1.33033 -0.346357 -7.88862 255 255 255
-0.6605 -0.0747883 -4.75813 255 255 255
2.35629 -0.296961 -5.92617 255 255 255
1.60819 -0.414252 -7.95737 255 255 255
0.370899 -0.358156 -7.83693 255 255 255
1.61339 -0.422979 -7.92173 255 255 255
0.775546 -0.392834 -7.9861 255 255 255
1.60057 -0.433188 -7.93964 255 255 255
1.0143 -0.408299 -7.94555 255 255 255
-1.28291 -0.0667501 -4.57867 255 255 255
0.777233 -0.416966 -7.97104 255 255 255
-0.0131295 -0.390086 -7.71887 255 255 255
0.751363 -0.467043 -8.01568 255 255 255
1.04954 -0.478264 -7.91808 255 255 255
1.17879 -0.481834 -7.91175 255 255 255
-0.324129 -0.179931 -4.98301 255 255 255
2.41478 -0.392206 -5.94164 255 255 255
-0.293576 -0.192291 -4.99259 255 255 255
-0.421621 -0.201452 -4.95088 255 255 255
-0.421684 -0.20159 -4.95178 255 255 255
-0.420426 -0.201065 -4.93625 255 255 255
-0.336292 -0.210097 -4.98197 255 255 255
-0.997746 -0.164711 -4.7503 255 255 255
-0.826702 -0.179033 -4.80965 255 255 255
-0.918454 -0.172045 -4.77613 255 255 255
-0.624732 -0.20218 -4.87739 255 255 255
-0.834818 -0.188454 -4.77767 255 255 255
1.63618 -0.57523 -7.86281 255 255 255
1.55922 -0.587054 -7.97772 255 255 255
1.77177 -0.580651 -7.78557 255 255 255
-0.841648 -0.212055 -4.80581 255 255 255
-0.8401 -0.209623 -4.78131 255 255 255
1.00896 -0.598089 -7.97611 255 255 255
0.767796 -0.589723 -8.02497 255 255 255
-0.787164 -0.223781 -4.82202 255 255 255
-0.770159 -0.226592 -4.8328 255 255 255
-0.651381 -0.233685 -4.87398 255 255 255
-0.874769 -0.220689 -4.77825 255 255 255
-0.212674 -0.271051 -5.01035 255 255 255
1.18136 -0.612751 -7.92051 255 255 255
-0.659345 -0.241575 -4.87108 255 255 255
0.77747 -0.609914 -7.99598 255 255 255
-1.10817 -0.213488 -4.71644 255 255 255
-0.713138 -0.242843 -4.85447 255 255 255
1.15763 -0.625104 -7.91083 255 255 255
-0.367967 -0.275327 -4.94672 255 255 255
-1.50519 -0.187947 -4.5786 255 255 255
-0.326382 -0.280827 -4.97697 255 255 255
-1.10131 -0.222973 -4.71894 255 255 255
-0.804742 -0.244301 -4.80284 255 255 255
1.18951 -0.639502 -7.90392 255 255 255
-0.501904 -0.271585 -4.92655 255 255 255
0.867364 -0.641259 -7.98157 255 255 255
1.61598 -0.671819 -7.91282 255 255 255
-0.759136 -0.255791 -4.838 255 255 255
-0.521431 -0.275037 -4.92049 255 255 255
-0.520737 -0.27573 -4.91915 255 255 255
1.59562 -0.679777 -7.98413 255 255 255
-0.786004 -0.258942 -4.82657 255 255 255
0.754847 -0.648249 -8.00399 255 255 255
-0.910974 -0.251818 -4.78421 255 255 255
1.14794 -0.678531 -7.95474 255 255 255
-0.739275 -0.276817 -4.84692 255 255 255
-0.556502 -0.291977 -4.91077 255 255 255
-0.924579 -0.263633 -4.78268 255 255 255
-1.35819 -0.229387 -4.6343 255 255 255
-1.35017 -0.234114 -4.63693 255 255 255
-0.649506 -0.292128 -4.87542 255 255 255
-0.905197 -0.274856 -4.78714 255 255 255
1.21868 -0.700882 -7.83955 255 255 255
-1.48955 -0.232478 -4.58782 255 255 255
-1.37918 -0.240753 -4.628 255 255 255
-0.451179 -0.31821 -4.94695 255 255 255
-1.55801 -0.22888 -4.56499 255 255 255
1.22029 -0.707672 -7.80265 255 255 255
-0.724581 -0.303354 -4.85393 255 255 255
0.953274 -0.720529 -7.95591 255 255 255
-0.932091 -0.300497 -4.78305 255 255 255
1.80744 -0.768084 -7.86467 255 255 255
-0.780927 -0.314629 -4.83465 255 255 255
-1.29199 -0.281928 -4.65844 255 255 255
-1.13886 -0.298091 -4.7136 255 255 255
-0.648581 -0.338664 -4.88215 255 255 255
-0.647671 -0.339406 -4.88117 255 255 255
-1.37804 -0.281836 -4.63001 255 255 255
-1.38451 -0.287082 -4.62754 255 255 255
-0.625259 -0.351675 -4.8717 255 255 255
-0.625859 -0.353752 -4.88971 255 255 255
-1.54267 -0.281376 -4.57291 255 255 255
-1.38782 -0.299042 -4.62633 255 255 255
-1.31848 -0.312692 -4.65144 255 255 255
-1.44878 -0.302538 -4.60482 255 255 255
1.70108 -0.834187 -7.86455 255 255 255
-1.31607 -0.326772 -4.65227 255 255 255
-0.69787 -0.381362 -4.8678 255 255 255
0.398949 -0.79364 -7.86803 255 255 255
0.780853 -0.840215 -7.99257 255 255 255
-0.958936 -0.370333 -4.77574 255 255 255
-1.37154 -0.34394 -4.63419 255 255 255
-1.12886 -0.372199 -4.71787 255 255 255
-0.76745 -0.405996 -4.845 255 255 255
-0.767206 -0.406012 -4.8449 255 255 255
-1.531 -0.340808 -4.57676 255 255 255
-0.783838 -0.412138 -4.84077 255 255 255
2.03726 -0.839339 -7.03904 255 255 255
-0.497244 -0.457165 -4.94234 255 255 255
-0.358307 -0.47228 -4.99094 255 255 255
-1.33586 -0.385143 -4.6468 255 255 255
-1.52915 -0.368484 -4.57824 255 255 255
-0.799855 -0.437484 -4.83568 255 255 255
1.43927 -0.974094 -8.08784 255 255 255
-1.06741 -0.415441 -4.74157 255 255 255
-0.62454 -0.459521 -4.89803 255 255 255
0.335143 -0.885278 -7.82143 255 255 255
-1.08117 -0.415879 -4.73792 255 255 255
-0.735807 -0.452395 -4.85701 255 255 255
0.775563 -0.93377 -7.93848 255 255 255
0.96871 -0.956266 -7.98155 255 255 255
-1.44035 -0.398722 -4.61058 255 255 255
-1.44035 -0.398722 -4.61058 255 255 255
1.05161 -0.974425 -7.96748 255 255 255
-1.33292 -0.415985 -4.65139 255 255 255
-1.23158 -0.426914 -4.68448 255 255 255
-0.674951 -0.487031 -4.88272 255 255 255
-0.673457 -0.484164 -4.88311 255 255 255
1.28895 -1.00748 -7.95701 255 255 255
1.25849 -1.01591 -7.9349 255 255 255
0.205809 -0.932294 -7.71403 255 255 255
-1.39621 -0.430588 -4.62817 255 255 255
-0.677045 -0.503382 -4.8812 255 255 255
-1.53139 -0.424865 -4.58362 255 255 255
0.203732 -0.947896 -7.74013 255 255 255
2.36743 -0.835193 -6.03921 255 255 255
-1.46852 -0.441886 -4.60536 255 255 255
-1.38212 -0.455472 -4.63608 255 255 255
-0.439498 -0.551825 -4.96843 255 255 255
1.18062 -1.05793 -7.90836 255 255 255
1.15264 -1.07204 -7.98399 255 255 255
-1.51835 -0.453049 -4.58618 255 255 255
-0.749744 -0.529209 -4.85941 255 255 255
-1.35179 -0.475718 -4.64583 255 255 255
-0.743434 -0.538666 -4.86711 255 255 255
-0.726706 -0.55237 -4.86825 255 255 255
1.24703 -1.1026 -7.91396 255 255 255
-0.620371 -0.566085 -4.9071 255 255 255
0.484029 -1.04136 -7.72834 255 255 255
-0.813262 -0.549372 -4.83761 255 255 255
1.23314 -1.11355 -7.90767 255 255 255
0.410921 -1.05472 -7.71344 255 255 255
-0.917912 -0.549311 -4.78331 255 255 255
-0.73765 -0.569601 -4.86351 255 255 255
-0.431134 -0.605231 -4.97889 255 255 255
1.1557 -1.14367 -7.93511 255 255 255
-0.455017 -0.616788 -4.96871 255 255 255
-1.4296 -0.5146 -4.61876 255 255 255
-0.729752 -0.588182 -4.87253 255 255 255
-0.730853 -0.589233 -4.87729 255 255 255
-1.40779 -0.522245 -4.62663 255 255 255
-1.23129 -0.545731 -4.69323 255 255 255
-1.47133 -0.521158 -4.60426 255 255 255
-1.4643 -0.525744 -4.60924 255 255 255
-1.27543 -0.546114 -4.67811 255 255 255
-1.45503 -0.528921 -4.61108 255 255 255
-1.43789 -0.529688 -4.61687 255 255 255
-1.43789 -0.529688 -4.61687 255 255 255
0.736498 -1.17685 -8.03247 255 255 255
0.167387 -1.07387 -7.54582 255 255 255
0.0833636 -1.08539 -7.62535 255 255 255
-1.21803 -0.561643 -4.69812 255 255 255
-1.34078 -0.560695 -4.65683 255 255 255
-0.415191 -0.663607 -4.9865 255 255 255
-0.423262 -0.664109 -4.98328 255 255 255
-0.83573 -0.622279 -4.83674 255 255 255
-1.10088 -0.596999 -4.7428 255 255 255
-1.46608 -0.558684 -4.60663 255 255 255
-0.386343 -0.67913 -4.99667 255 255 255
-1.15369 -0.598405 -4.72418 255 255 255
1.73525 -1.26469 -7.87535 255 255 255
-0.262498 -0.697866 -5.04447 255 255 255
-1.37352 -0.588258 -4.64278 255 255 255
-0.420708 -0.693221 -4.98949 255 255 255
-1.41603 -0.589889 -4.62656 255 255 255
-1.55106 -0.576494 -4.58256 255 255 255
-1.26803 -0.615247 -4.69723 255 255 255
1.25847 -1.304 -7.89474 255 255 255
-0.679635 -0.686314 -4.89424 255 255 255
1.2392 -1.3165 -7.91713 255 255 255
-1.45089 -0.627736 -4.6201 255 255 255
-0.635153 -0.728916 -4.91526 255 255 255
-1.45704 -0.637544 -4.61739 255 255 255
-1.0884 -0.680513 -4.75107 255 255 255
-0.357516 -0.76701 -5.01505 255 255 255
-1.3256 -0.663954 -4.66889 255 255 255
-1.46621 -0.661549 -4.61757 255 255 255
-1.21772 -0.692595 -4.70767 255 255 255
-1.20847 -0.693156 -4.71014 255 255 255
-0.793175 -0.740979 -4.8603 255 255 255
0.171018 -1.2895 -7.60645 255 255 255
-0.801524 -0.749578 -4.8587 255 255 255
0.764856 -1.399 -7.99048 255 255 255
-1.58863 -0.662794 -4.57359 255 255 255
0.868502 -1.43137 -8.00733 255 255 255
1.21793 -1.45384 -7.9478 255 255 255
1.72092 -1.49097 -7.88308 255 255 255
1.72119 -1.49208 -7.88658 255 255 255
1.17378 -1.47967 -7.99112 255 255 255
-0.92023 -0.774709 -4.81798 255 255 255
-1.34073 -0.732026 -4.66612 255 255 255
1.23054 -1.48859 -7.92038 255 255 255
-1.50178 -0.716137 -4.60505 255 255 255
-1.01789 -0.77803 -4.78397 255 255 255
0.252324 -1.38866 -7.6547 255 255 255
-0.938302 -0.789855 -4.81097 255 255 255
0.00800226 -1.38209 -7.63523 255 255 255
-0.644186 -0.834571 -4.91891 255 255 255
-0.562189 -0.849339 -4.9522 255 255 255
-0.636263 -0.844907 -4.92307 255 255 255
1.03654 -1.54316 -7.98917 255 255 255
-1.39716 -0.766637 -4.64839 255 255 255
-1.04201 -0.812128 -4.77947 255 255 255
0.145567 -1.44418 -7.66567 255 255 255
-1.53233 -0.772826 -4.61726 255 255 255
-1.24663 -0.809864 -4.70546 255 255 255
-0.723481 -0.877139 -4.89857 255 255 255
-0.494203 -0.905667 -4.97729 255 255 255
-0.941316 -0.858229 -4.81884 255 255 255
-0.789376 -0.879917 -4.87473 255 255 255
-0.757228 -0.89072 -4.88929 255 255 255
-1.34077 -0.821356 -4.67412 255 255 255
-1.54151 -0.800975 -4.61773 255 255 255
-0.826126 -0.899891 -4.86405 255 255 255
-0.520165 -0.938751 -4.97418 255 255 255
-1.53041 -0.814751 -4.62181 255 255 255
-1.38746 -0.830944 -4.6587 255 255 255
-0.733839 -0.915408 -4.89684 255 255 255
-1.25643 -0.848982 -4.70548 255 255 255
0.224301 -1.55013 -7.66065 255 255 255
0.691309 -1.60934 -7.78315 255 255 255
-1.4946 -0.832674 -4.63286 255 255 255
-0.558837 -0.958416 -4.9609 255 255 255
-0.382955 -0.980363 -5.02503 255 255 255
0.856474 -1.67227 -7.96888 255 255 255
0.879565 -1.67637 -7.97792 255 255 255
0.138151 -1.58068 -7.66237 255 255 255
0.118805 -1.58676 -7.67993 255 255 255
-0.827087 -0.943437 -4.86674 255 255 255
-0.670055 -0.964867 -4.91916 255 255 255
0.272624 -1.60764 -7.68974 255 255 255
1.78667 -1.7343 -7.80645 255 255 255
-0.843838 -0.956558 -4.86023 255 255 255
-0.563272 -0.994692 -4.96223 255 255 255
-0.900161 -0.947707 -4.83965 255 255 255
-1.60381 -0.864064 -4.60317 255 255 255
1.55781 -1.76941 -7.90865 255 255 255
-0.552668 -1.00207 -4.96701 255 255 255
-0.337456 -1.04635 -5.04073 255 255 255
0.920217 -1.77063 -8.01552 255 255 255
-1.23761 -0.928368 -4.71784 255 255 255
-0.302638 -1.0546 -5.05443 255 255 255
0.861804 -1.76975 -7.99896 255 255 255
0.0747825 -1.64959 -7.65979 255 255 255
-1.22763 -0.932971 -4.72151 255 255 255
-1.22768 -0.932762 -4.72118 255 255 255
0.937185 -1.78773 -8.02218 255 255 255
-1.27554 -0.930512 -4.70519 255 255 255
1.32049 -1.81809 -8.00466 255 255 255
-0.273409 -1.07501 -5.06847 255 255 255
0.754704 -1.78194 -7.96188 255 255 255
-1.00903 -0.979949 -4.80314 255 255 255
1.85847 -1.77878 -7.57788 255 255 255
-1.5919 -0.905218 -4.60896 255 255 255
-0.601143 -1.04362 -4.95114 255 255 255
-0.945952 -1.00841 -4.83081 255 255 255
-0.275551 -1.10269 -5.06996 255 255 255
-0.836207 -1.03465 -4.87067 255 255 255
-0.398503 -1.09978 -5.0266 255 255 255
-0.746403 -1.05426 -4.9041 255 255 255
-0.340462 -1.11353 -5.04736 255 255 255
-0.769383 -1.05497 -4.89763 255 255 255
-1.29631 -0.984954 -4.70128 255 255 255
-1.29631 -0.984954 -4.70128 255 255 255
0.974948 -1.89275 -8.04981 255 255 255
0.314348 -1.80495 -7.80428 255 255 255
-0.803749 -1.06658 -4.88442 255 255 255
1.04563 -1.92254 -7.99785 255 255 255
-0.605237 -1.11485 -4.95623 255 255 255
-0.254466 -1.16449 -5.08009 255 255 255
-1.2569 -1.02231 -4.71804 255 255 255
-0.824625 -1.09104 -4.87762 255 255 255
-0.824628 -1.09101 -4.8775 255 255 255
1.7469 -1.8715 -7.39834 255 255 255
-0.99901 -1.0818 -4.81408 255 255 255
-0.317418 -1.18603 -5.05872 255 255 255
1.18586 -1.97333 -7.93001 255 255 255
-1.54073 -1.01595 -4.6357 255 255 255
-0.408056 -1.17882 -5.03057 255 255 255
-0.835374 -1.11898 -4.87564 255 255 255
-0.828122 -1.1212 -4.88235 255 255 255
-0.858424 -1.11691 -4.86883 255 255 255
1.79609 -1.85957 -7.19483 255 255 255
-1.49144 -1.03724 -4.65273 255 255 255
-1.01677 -1.10295 -4.80988 255 255 255
-0.741923 -1.1481 -4.91279 255 255 255
-0.946519 -1.1175 -4.83653 255 255 255
-0.594536 -1.17375 -4.96127 255 255 255
-0.396102 -1.20547 -5.03614 255 255 255
-0.83092 -1.14665 -4.88141 255 255 255
-0.831066 -1.14719 -4.88108 255 255 255
-0.825319 -1.16236 -4.88484 255 255 255
-1.05705 -1.12763 -4.79718 255 255 255
-0.833784 -1.16027 -4.88024 255 255 255
-0.842746 -1.16236 -4.87915 255 255 255
-0.842746 -1.16236 -4.87915 255 255 255
0.94666 -2.06344 -8.03856 255 255 255
-0.477169 -1.22214 -5.01205 255 255 255
-1.12 -1.12485 -4.77491 255 255 255
1.76305 -1.98958 -7.44766 255 255 255
1.84956 -1.8976 -7.06163 255 255 255
-0.77848 -1.187 -4.90471 255 255 255
-1.5173 -1.07964 -4.64781 255 255 255
-1.23997 -1.11717 -4.73152 255 255 255
-1.20686 -1.12459 -4.74402 255 255 255
-1.34064 -1.11398 -4.69641 255 255 255
0.944544 -2.12315 -8.0515 255 255 255
-1.04348 -1.1724 -4.80655 255 255 255
-0.923602 -1.199 -4.85288 255 255 255
-0.988065 -1.19242 -4.82621 255 255 255
-0.848621 -1.21529 -4.88004 255 255 255
-1.41198 -1.13269 -4.67295 255 255 255
1.2069 -2.21186 -8.03791 255 255 255
-0.468063 -1.3173 -5.02023 255 255 255
-0.289738 -1.35437 -5.08207 255 255 255
-1.37537 -1.18449 -4.69043 255 255 255
-0.701305 -1.3071 -4.94231 255 255 255
-1.3653 -1.20494 -4.69521 255 255 255
-0.326074 -1.375 -5.07113 255 255 255
-0.898534 -1.28803 -4.86821 255 255 255
-0.648298 -1.3324 -4.96019 255 255 255
-1.34249 -1.22418 -4.70364 255 255 255
-1.27324 -1.23972 -4.73103 255 255 255
-0.965027 -1.29053 -4.84369 255 255 255
-0.88667 -1.30392 -4.87327 255 255 255
0.939217 -2.30958 -8.06349 255 255 255
-0.450726 -1.38894 -5.03306 255 255 255
-0.877226 -1.3283 -4.88016 255 255 255
-0.336116 -1.41418 -5.07119 255 255 255
-0.336116 -1.41418 -5.07119 255 255 255
-0.786028 -1.36039 -4.91712 255 255 255
-1.22955 -1.28788 -4.75231 255 255 255
-0.698595 -1.41384 -4.95221 255 255 255
1.09375 -2.42963 -8.05775 255 255 255
-0.85466 -1.40376 -4.89245 255 255 255
-1.12126 -1.35979 -4.79473 255 255 255
-0.826406 -1.42423 -4.90739 255 255 255
-1.05419 -1.39457 -4.82223 255 255 255
2.58231 -2.04792 -6.10824 255 255 255
-0.898333 -1.42929 -4.87897 255 255 255
-1.15301 -1.39568 -4.78656 255 255 255
-1.03713 -1.42381 -4.82862 255 255 255
-1.13156 -1.42999 -4.79546 255 255 255
1.60246 -2.67424 -7.97264 255 255 255
-0.39986 -1.66626 -5.07887 255 255 255
-0.839945 -1.59525 -4.92422 255 255 255
-0.840054 -1.59531 -4.92402 255 255 255
1.40247 -2.78481 -8.15103 255 255 255
-0.898879 -1.61511 -4.90585 255 255 255
-0.672262 -1.65929 -4.98144 255 255 255
-0.672262 -1.65929 -4.98144 255 255 255
-0.917607 -1.61838 -4.90129 255 255 255
-0.662561 -1.66636 -4.98588 255 255 255
-0.922903 -1.62335 -4.89336 255 255 255
-1.019 -1.64267 -4.85935 255 255 255
-0.798911 -1.68621 -4.94415 255 255 255
-0.709915 -1.70299 -4.97524 255 255 255
-0.77233 -1.6938 -4.95084 255 255 255
-0.77233 -1.6938 -4.95084 255 255 255
-0.996254 -1.66893 -4.87344 255 255 255
-1.01829 -1.68379 -4.8676 255 255 255
-0.455873 -1.83223 -5.07011 255 255 255
1.06568 -2.99275 -8.09754 255 255 255
-0.62651 -1.81335 -5.01019 255 255 255
-0.912659 -1.7594 -4.90883 255 255 255
-0.911725 -1.775 -4.91028 255 255 255
-0.703524 -1.84013 -4.98007 255 255 255
-0.875633 -1.81548 -4.92502 255 255 255
-0.787845 -1.83988 -4.9551 255 255 255
-0.890608 -1.81895 -4.92067 255 255 255
-0.857325 -1.83385 -4.93401 255 255 255
1.10536 -3.15705 -8.09378 255 255 255
-0.981352 -1.8403 -4.89102 255 255 255
-0.828928 -1.88541 -4.94673 255 255 255
-0.506908 -1.94994 -5.051 255 255 255
0.919779 -3.16989 -8.1152 255 255 255
-0.940373 -1.86164 -4.90632 255 255 255
-0.940373 -1.86164 -4.90632 255 255 255
-0.572674 -1.95043 -5.03491 255 255 255
-0.92318 -1.89174 -4.91088 255 255 255
-1.00863 -1.88083 -4.88358 255 255 255
-0.781942 -1.93118 -4.96508 255 255 255
-1.02883 -1.88172 -4.8748 255 255 255
-0.310873 -2.05492 -5.13366 255 255 255
-0.909359 -1.93308 -4.91829 255 255 255
-0.541394 -2.01706 -5.05223 255 255 255
-0.667126 -1.99784 -5.00686 255 255 255
-0.988411 -1.93427 -4.89212 255 255 255
-0.723181 -1.99514 -4.98917 255 255 255
-0.962455 -1.95005 -4.90215 255 255 255
-0.874302 -1.97673 -4.93339 255 255 255
-0.874302 -1.97673 -4.93339 255 255 255
-0.571899 -2.06518 -5.04408 255 255 255
-0.357849 -2.11262 -5.12275 255 255 255
0.910705 -3.37714 -8.11717 255 255 255
-0.504327 -2.10523 -5.06979 255 255 255
-0.381346 -2.14876 -5.11434 255 255 255
-0.380679 -2.14771 -5.11533 255 255 255
-0.774274 -2.07332 -4.97472 255 255 255
-0.597492 -2.12453 -5.03991 255 255 255
-0.599238 -2.12916 -5.05226 255 255 255
-1.03109 -2.03831 -4.8841 255 255 255
-0.514702 -2.17611 -5.07065 255 255 255
-0.79977 -2.1167 -4.96639 255 255 255
-0.919476 -2.0926 -4.92137 255 255 255
-1.02312 -2.07211 -4.8888 255 255 255
-0.892352 -2.10384 -4.93238 255 255 255
-0.656731 -2.16471 -5.02198 255 255 255
-0.320655 -2.28885 -5.1434 255 255 255
-0.749355 -2.20236 -4.98987 255 255 255
-0.911519 -2.16408 -4.92798 255 255 255
-0.94887 -2.16082 -4.91778 255 255 255
-1.09223 -2.16233 -4.86746 255 255 255
-0.774665 -2.24674 -4.98412 255 255 255
-0.909005 -2.21592 -4.93509 255 255 255
-0.77083 -2.2571 -4.98574 255 255 255
-0.77214 -2.25654 -4.98708 255 255 255
-0.792646 -2.27117 -4.97863 255 255 255
-1.04594 -2.22273 -4.88936 255 255 255
-0.515534 -2.39601 -5.08688 255 255 255
-0.51558 -2.39611 -5.0869 255 255 255
-0.394543 -2.45208 -5.13355 255 255 255
-0.439156 -2.45696 -5.1168 255 255 255
-0.376791 -2.48266 -5.13831 255 255 255
-0.904898 -2.36503 -4.94656 255 255 255
-0.682971 -2.43137 -5.03871 255 255 255
-0.692917 -2.45271 -5.02668 255 255 255
-0.719259 -2.44728 -5.01911 255 255 255
-0.303813 -2.70197 -5.17964 255 255 255
-0.531355 -2.68388 -5.10794 255 255 255
-0.530951 -2.68351 -5.10774 255 255 255
-0.53396 -2.7057 -5.10749 255 255 255
-0.841039 -2.65986 -5.00605 255 255 255
-0.970896 -2.67762 -4.95789 255 255 255
-0.804136 -2.7439 -5.01898 255 255 255
-1.11802 -2.66931 -4.91039 255 255 255
-0.416379 -2.96241 -5.16077 255 255 255
-0.838795 -2.87959 -5.01906 255 255 255
2.7869 3.046 -5.97106 255 255 255
1.89739 3.41118 -7.39354 255 255 255
0.527953 3.33994 -7.80821 255 255 255
2.92503 2.74467 -6.00771 255 255 255
-0.216131 3.14958 -7.55559 255 255 255
1.19636 3.31143 -8.06053 255 255 255
2.51736 2.61428 -5.86672 255 255 255
1.93559 3.09235 -7.40329 255 255 255
2.59981 2.54767 -5.86534 255 255 255
2.31242 2.5763 -6.02343 255 255 255
2.65447 2.51855 -5.89947 255 255 255
2.01848 2.90614 -7.33989 255 255 255
-1.13963 2.80947 -7.07474 255 255 255
-1.13963 2.80947 -7.07474 255 255 255
-0.823095 2.88458 -7.34457 255 255 255
1.78919 2.88585 -7.4523 255 255 255
1.60232 3.02797 -7.95295 255 255 255
-0.710734 2.84898 -7.36208 255 255 255
-0.51699 2.87284 -7.45334 255 255 255
-0.356784 2.87901 -7.48202 255 255 255
-1.17751 2.78578 -7.14881 255 255 255
-0.173934 2.87426 -7.52094 255 255 255
-0.264951 2.86597 -7.52128 255 255 255
2.47083 2.3986 -5.86135 255 255 255
-0.412176 2.82658 -7.49564 255 255 255
0.22044 2.86312 -7.68958 255 255 255
-0.383978 2.81849 -7.52207 255 255 255
2.39778 2.32532 -5.76986 255 255 255
1.23532 2.97678 -8.11155 255 255 255
2.34375 2.32435 -5.77562 255 255 255
0.0315336 2.82635 -7.61499 255 255 255
1.63206 2.86185 -7.80896 255 255 255
-0.18857 2.79161 -7.57914 255 255 255
0.831812 2.86117 -7.87204 255 255 255
-0.177401 2.78158 -7.59045 255 255 255
0.249398 2.80121 -7.675 255 255 255
0.797626 2.85612 -7.88366 255 255 255
0.797626 2.85612 -7.88366 255 255 255
0.639205 2.83261 -7.8665 255 255 255
1.6658 2.79117 -7.74758 255 255 255
-0.497518 2.71378 -7.47772 255 255 255
0.79265 2.8244 -7.90893 255 255 255
1.0523 2.84501 -7.99443 255 255 255
2.34004 2.22181 -5.77184 255 255 255
0.284484 2.62403 -7.30958 255 255 255
-0.308396 2.68297 -7.55118 255 255 255
0.824864 2.77998 -7.95624 255 255 255
-0.453137 2.65827 -7.49318 255 255 255
0.178217 2.60272 -7.30545 255 255 255
0.178217 2.60272 -7.30545 255 255 255
0.0177343 2.6887 -7.62463 255 255 255
1.54903 2.79527 -8.02998 255 255 255
1.27878 2.81682 -8.11954 255 255 255
2.34609 2.17651 -5.79019 255 255 255
-1.20466 2.53316 -7.18684 255 255 255
-0.297682 2.60143 -7.56137 255 255 255
-0.210594 2.60314 -7.59261 255 255 255
-0.210192 2.60534 -7.60324 255 255 255
-0.59539 2.53065 -7.4571 255 255 255
-0.186771 2.55068 -7.5916 255 255 255
-0.0240523 2.56 -7.64838 255 255 255
-0.377633 2.53362 -7.53307 255 255 255
-0.259493 2.53967 -7.57559 255 255 255
-0.715602 2.46606 -7.41407 255 255 255
-0.069586 2.5162 -7.64715 255 255 255
2.19743 2.15898 -6.22971 255 255 255
0.887246 2.56919 -7.98546 255 255 255
1.18127 2.57223 -8.09915 255 255 255
-0.226774 2.44928 -7.59169 255 255 255
1.6006 2.51553 -7.93789 255 255 255
2.97517 2.07117 -6.06688 255 255 255
1.0453 2.52594 -8.04781 255 255 255
0.303258 2.34553 -7.28697 255 255 255
0.30895 2.29284 -7.28293 255 255 255
1.11808 2.46847 -8.07671 255 255 255
0.415221 2.29514 -7.32514 255 255 255
0.678556 2.39334 -7.9301 255 255 255
-0.644325 2.23919 -7.45383 255 255 255
-0.660249 2.23362 -7.458 255 255 255
0.436391 2.18854 -7.34617 255 255 255
-0.432318 2.2298 -7.53023 255 255 255
1.3879 2.33565 -8.19417 255 255 255
0.330831 2.15406 -7.30471 255 255 255
2.6202 1.82354 -5.91189 255 255 255
1.09362 2.27875 -8.09005 255 255 255
2.16839 1.90335 -6.32194 255 255 255
0.298303 2.11331 -7.3154 255 255 255
0.298756 2.1147 -7.31989 255 255 255
1.27444 2.27822 -8.14746 255 255 255
1.83565 2.12645 -7.4401 255 255 255
0.171819 2.11068 -7.41823 255 255 255
0.101068 2.16421 -7.71692 255 255 255
0.905661 2.21397 -8.0217 255 255 255
1.53306 2.2306 -8.12891 255 255 255
1.01331 2.21482 -8.06571 255 255 255
2.54153 1.77079 -5.88528 255 255 255
1.54657 2.15915 -8.05849 255 255 255
1.25325 2.17209 -8.15396 255 255 255
1.1268 2.16164 -8.11016 255 255 255
-0.449397 2.04655 -7.54582 255 255 255
0.950346 2.09535 -8.04942 255 255 255
0.286096 1.962 -7.38477 255 255 255
2.39287 1.64396 -5.82168 255 255 255
0.94303 2.06162 -8.0474 255 255 255
0.989891 2.05885 -8.06792 255 255 255
0.907796 2.04755 -8.03784 255 255 255
-0.904932 1.78382 -6.58884 255 255 255
-0.561418 1.92279 -7.50821 255 255 255
2.92764 1.60476 -6.04202 255 255 255
1.32588 1.98659 -8.19176 255 255 255
-0.321537 1.89982 -7.60018 255 255 255
2.07323 1.66688 -6.54635 255 255 255
0.490593 1.83009 -7.46462 255 255 255
1.94762 1.68434 -6.883 255 255 255
-0.492292 1.8269 -7.54247 255 255 255
0.813992 1.88507 -8.01425 255 255 255
2.66663 1.51991 -5.95586 255 255 255
2.70383 1.49315 -5.97605 255 255 255
2.03861 1.60877 -6.67936 255 255 255
-0.175194 1.74564 -7.67366 255 255 255
0.812609 1.76127 -8.01796 255 255 255
-0.161886 1.64827 -7.35126 255 255 255
0.919773 1.67918 -7.8142 255 255 255
0.921756 1.68102 -7.81516 255 255 255
1.90126 1.55933 -7.11967 255 255 255
1.3412 1.65587 -7.75038 255 255 255
0.729823 1.61069 -7.57318 255 255 255
2.83693 1.36244 -6.05255 255 255 255
2.86447 1.364 -6.03548 255 255 255
1.8628 1.52891 -7.19778 255 255 255
-1.25367 1.60323 -7.34905 255 255 255
2.0738 1.42377 -6.54529 255 255 255
-0.609032 1.55597 -7.21021 255 255 255
-0.459505 1.55211 -7.25597 255 255 255
-0.362508 1.55317 -7.27956 255 255 255
-0.524273 1.54382 -7.24802 255 255 255
0.346139 1.55771 -7.53667 255 255 255
0.807473 1.55363 -7.69982 255 255 255
1.84679 1.4614 -7.17273 255 255 255
1.69625 1.52755 -7.65132 255 255 255
2.04821 1.37122 -6.64598 255 255 255
0.88138 1.51416 -7.71948 255 255 255
-0.67666 1.45369 -7.08755 255 255 255
0.533756 1.48492 -7.55032 255 255 255
-0.724938 1.4476 -7.08629 255 255 255
-0.0301686 1.45586 -7.36657 255 255 255
0.576077 1.44096 -7.57071 255 255 255
1.59426 1.46659 -7.87867 255 255 255
0.213451 1.43587 -7.52933 255 255 255
0.130171 1.40992 -7.47299 255 255 255
-0.215908 1.3763 -7.3108 255 255 255
0.684799 1.38892 -7.61578 255 255 255
1.89422 1.28334 -7.11459 255 255 255
0.045987 1.34879 -7.4629 255 255 255
1.81042 1.28991 -7.28546 255 255 255
2.03748 1.19111 -6.64231 255 255 255
2.03748 1.19111 -6.64231 255 255 255
-0.292751 1.30571 -7.27881 255 255 255
2.7505 1.09891 -6.01134 255 255 255
0.550654 1.30328 -7.62753 255 255 255
0.769015 1.26792 -7.65998 255 255 255
1.4786 1.28728 -7.95419 255 255 255
1.4786 1.28728 -7.95419 255 255 255
2.26021 1.0399 -5.8445 255 255 255
2.37945 1.03573 -5.84118 255 255 255
2.37945 1.03573 -5.84118 255 255 255
2.1219 1.09517 -6.38287 255 255 255
0.0863138 1.25056 -7.53407 255 255 255
2.28847 1.03235 -5.89576 255 255 255
0.848957 1.21769 -7.69992 255 255 255
1.17921 1.22194 -7.89385 255 255 255
-0.0983572 1.20203 -7.40268 255 255 255
0.41256 1.18264 -7.70583 255 255 255
0.839027 1.16886 -7.68221 255 255 255
1.7539 1.1269 -7.49605 255 255 255
0.890674 1.14172 -7.75897 255 255 255
0.857157 1.12986 -7.70216 255 255 255
1.87288 1.03844 -7.13686 255 255 255
1.28656 1.1083 -7.79893 255 255 255
-0.511066 1.08619 -7.26912 255 255 255
2.76013 0.893176 -5.97952 255 255 255
1.27322 1.07024 -7.79509 255 255 255
2.42427 0.877984 -5.84813 255 255 255
0.334379 1.07001 -7.60698 255 255 255
2.61758 0.879018 -5.91578 255 255 255
1.70784 1.03215 -7.61963 255 255 255
0.518936 1.03836 -7.63819 255 255 255
0.474393 1.04033 -7.67808 255 255 255
0.474125 1.04043 -7.68092 255 255 255
1.85556 0.956335 -7.0598 255 255 255
-0.602636 1.01991 -7.23232 255 255 255
0.38834 1.02496 -7.62635 255 255 255
1.60961 1.00177 -7.76959 255 255 255
1.86951 0.945239 -7.10768 255 255 255
-1.07464 0.994508 -6.86892 255 255 255
0.508535 1.00001 -7.65226 255 255 255
-0.41311 0.988115 -7.25856 255 255 255
1.67418 0.964974 -7.65763 255 255 255
-0.222601 0.971722 -7.30808 255 255 255
-0.209217 0.964796 -7.32007 255 255 255
1.34271 0.954628 -7.82093 255 255 255
0.721157 0.953116 -7.66855 255 255 255
-0.0222431 0.957037 -7.46206 255 255 255
2.11198 0.827645 -6.41507 255 255 255
2.53507 0.779243 -5.94653 255 255 255
2.03038 0.835868 -6.62416 255 255 255
-0.239144 0.936116 -7.36441 255 255 255
-0.400813 0.932013 -7.28845 255 255 255
1.82723 0.847223 -7.28097 255 255 255
2.59722 0.737721 -5.95774 255 255 255
2.48137 0.738307 -5.92306 255 255 255
2.47047 0.726579 -5.92551 255 255 255
1.78576 0.833749 -7.39877 255 255 255
2.11737 0.751379 -6.41385 255 255 255
2.34634 0.714839 -5.90629 255 255 255
2.74508 0.712563 -6.02728 255 255 255
2.86378 0.710127 -6.07643 255 255 255
-0.639222 0.857239 -7.12549 255 255 255
-0.816954 0.853684 -7.1147 255 255 255
2.31383 0.692796 -5.89715 255 255 255
1.63395 0.809854 -7.89685 255 255 255
1.29529 0.78171 -7.81146 255 255 255
1.70596 0.740452 -7.6987 255 255 255
0.275348 0.760513 -7.56681 255 255 255
1.35884 0.744407 -7.85734 255 255 255
1.06842 0.743596 -7.81501 255 255 255
1.06899 0.743459 -7.82291 255 255 255
1.87586 0.69462 -7.32148 255 255 255
1.21188 0.72901 -7.82137 255 255 255
-0.525069 0.742938 -7.21097 255 255 255
1.80256 0.671789 -7.44521 255 255 255
1.35911 0.696047 -7.84409 255 255 255
-0.44712 0.715527 -7.27433 255 255 255
2.90856 0.567708 -6.09432 255 255 255
1.3837 0.681793 -7.8499 255 255 255
1.80191 0.655216 -7.48241 255 255 255
1.55484 0.684549 -8.04378 255 255 255
0.492385 0.691909 -7.66043 255 255 255
0.00457824 0.693542 -7.50001 255 255 255
1.14707 0.671267 -7.83414 255 255 255
2.70738 0.559733 -6.10726 255 255 255
1.94069 0.604223 -7.13566 255 255 255
0.603717 0.672587 -7.71963 255 255 255
1.87948 0.615137 -7.26231 255 255 255
1.87948 0.615137 -7.26231 255 255 255
-0.52294 0.675161 -7.24432 255 255 255
1.59486 0.631772 -7.93371 255 255 255
2.36141 0.521722 -5.84718 255 255 255
1.56514 0.620479 -7.97734 255 255 255
-0.192875 0.655334 -7.44281 255 255 255
1.14509 0.613095 -7.86268 255 255 255
2.19345 0.531331 -6.40304 255 255 255
-0.422103 0.641663 -7.29604 255 255 255
-0.365887 0.636213 -7.31755 255 255 255
-1.28161 0.668676 -7.35452 255 255 255
2.48871 0.49329 -5.939 255 255 255
2.48889 0.494824 -5.93938 255 255 255
2.31027 0.492908 -5.88288 255 255 255
-0.334032 0.620503 -7.37416 255 255 255
-0.507806 0.600297 -7.26886 255 255 255
2.43096 0.464911 -5.94118 255 255 255
1.26738 0.536444 -7.81505 255 255 255
2.49064 0.444784 -5.94737 255 255 255
-0.508963 0.576472 -7.26668 255 255 255
0.297841 0.561879 -7.71244 255 255 255
2.37194 0.445969 -5.92879 255 255 255
1.56721 0.52193 -7.96373 255 255 255
-0.509574 0.543051 -7.26949 255 255 255
1.59537 0.487489 -7.93089 255 255 255
-0.49298 0.531276 -7.28516 255 255 255
-0.280482 0.515435 -7.43573 255 255 255
-0.496418 0.506877 -7.28397 255 255 255
1.13952 0.466775 -7.87028 255 255 255
1.15845 0.453162 -7.86607 255 255 255
-0.312337 0.487702 -7.42667 255 255 255
-0.500458 0.489108 -7.2887 255 255 255
-0.863009 0.484932 -6.69223 255 255 255
-0.309728 0.456114 -7.39877 255 255 255
2.91082 0.288156 -6.13723 255 255 255
2.41601 0.295733 -5.93338 255 255 255
0.685712 0.367753 -7.81321 255 255 255
1.2246 0.33981 -7.7712 255 255 255
0.982243 0.342912 -7.8287 255 255 255
1.95408 0.294431 -7.34965 255 255 255
0.325475 0.340453 -7.78926 255 255 255
0.897427 0.303594 -7.84989 255 255 255
1.94514 0.26614 -7.33596 255 255 255
-0.250492 0.333576 -4.99482 255 255 255
-0.601384 0.331612 -4.85948 255 255 255
0.702875 0.278922 -7.83984 255 255 255
-0.709912 0.333618 -4.83213 255 255 255
-0.510227 0.318658 -4.89309 255 255 255
2.44307 0.210641 -5.91154 255 255 255
1.0284 0.238943 -7.93405 255 255 255
-1.50913 0.332106 -4.47036 255 255 255
2.87134 0.167658 -6.14695 255 255 255
1.73885 0.186286 -7.83338 255 255 255
0.788917 0.198313 -7.88189 255 255 255
2.40564 0.159635 -5.90138 255 255 255
2.84991 0.0806626 -6.14458 255 255 255
2.84991 0.0806626 -6.14458 255 255 255
0.28639 0.140776 -7.79087 255 255 255
1.80119 0.0875308 -7.47853 255 255 255
0.824422 0.104918 -7.9035 255 255 255
2.6789 0.0561678 -6.16551 255 255 255
2.37198 0.0406091 -5.90465 255 255 255
1.01972 0.0241141 -7.93104 255 255 255
1.72053 -0.00777078 -7.78194 255 255 255
1.40419 -0.0068145 -7.92495 255 255 255
0.518847 -0.00179682 -7.86496 255 255 255
1.09674 -0.0537219 -7.89559 255 255 255
1.27536 -0.0744519 -7.84528 255 255 255
2.99883 -0.0965717 -6.23604 255 255 255
2.6281 -0.0844896 -6.07051 255 255 255
2.02572 -0.0926088 -6.74877 255 255 255
1.09552 -0.122732 -7.90328 255 255 255
2.37466 -0.124072 -5.99213 255 255 255
1.77757 -0.185585 -7.68592 255 255 255
1.6892 -0.215034 -7.76657 255 255 255
0.865461 -0.224986 -7.94134 255 255 255
1.75467 -0.255437 -7.7391 255 255 255
1.05956 -0.238879 -7.86125 255 255 255
0.777174 -0.239482 -7.96444 255 255 255
1.76082 -0.290077 -7.79142 255 255 255
1.96716 -0.252935 -6.97424 255 255 255
1.96716 -0.252935 -6.97424 255 255 255
2.39026 -0.21552 -5.96892 255 255 255
2.34352 -0.244125 -5.88639 255 255 255
2.34431 -0.243901 -5.88947 255 255 255
1.15692 -0.315614 -7.85615 255 255 255
1.93429 -0.321977 -7.02658 255 255 255
0.874409 -0.377305 -7.94773 255 255 255
2.3593 -0.321518 -5.93615 255 255 255
1.38963 -0.424978 -7.99295 255 255 255
2.18142 -0.334449 -6.09567 255 255 255
0.912137 -0.42233 -7.94417 255 255 255
0.927955 -0.419795 -7.9197 255 255 255
1.31905 -0.494228 -7.92926 255 255 255
1.35524 -0.497278 -7.931 255 255 255
-0.604182 -0.164428 -4.88237 255 255 255
-0.390683 -0.180147 -4.9585 255 255 255
-0.480719 -0.186504 -4.92648 255 255 255
-0.494586 -0.185654 -4.92237 255 255 255
-0.518198 -0.202653 -4.91802 255 255 255
1.85797 -0.51562 -7.15561 255 255 255
1.93535 -0.513385 -7.0376 255 255 255
-0.442593 -0.21981 -4.94117 255 255 255
-0.492941 -0.219371 -4.92713 255 255 255
0.923189 -0.556844 -7.93174 255 255 255
-0.369174 -0.234414 -4.97409 255 255 255
1.92382 -0.546363 -7.06291 255 255 255
-1.43608 -0.165117 -4.60262 255 255 255
-0.993013 -0.201257 -4.75256 255 255 255
0.345442 -0.559374 -7.88295 255 255 255
-1.53344 -0.173843 -4.56748 255 255 255
1.63482 -0.641066 -7.88453 255 255 255
-0.462967 -0.26124 -4.94128 255 255 255
1.17852 -0.625947 -7.90776 255 255 255
-1.03054 -0.231283 -4.79926 255 255 255
-1.02434 -0.225762 -4.74496 255 255 255
1.65866 -0.661436 -7.91627 255 255 255
0.923423 -0.637766 -7.95371 255 255 255
2.59906 -0.539693 -6.00169 255 255 255
-1.06234 -0.234575 -4.73499 255 255 255
-0.866257 -0.254954 -4.79824 255 255 255
-0.866257 -0.254954 -4.79824 255 255 255
-0.512202 -0.283749 -4.92398 255 255 255
-1.42401 -0.214801 -4.61209 255 255 255
-0.272617 -0.313973 -5.00896 255 255 255
-0.614735 -0.293036 -4.88769 255 255 255
2.5376 -0.568218 -5.99726 255 255 255
-0.394523 -0.317421 -4.96793 255 255 255
-0.369781 -0.321857 -4.97375 255 255 255
-1.14788 -0.266479 -4.70659 255 255 255
-1.14788 -0.266479 -4.70659 255 255 255
-1.5242 -0.236069 -4.57901 255 255 255
2.51198 -0.58405 -5.98639 255 255 255
2.51198 -0.58405 -5.98639 255 255 255
-1.38724 -0.265987 -4.62445 255 255 255
2.58224 -0.6155 -6.0077 255 255 255
-0.852843 -0.315059 -4.80867 255 255 255
-0.926337 -0.316682 -4.78318 255 255 255
-0.783498 -0.338633 -4.91781 255 255 255
-1.03677 -0.311407 -4.74645 255 255 255
2.34493 -0.644001 -5.92798 255 255 255
2.64628 -0.675656 -6.03579 255 255 255
-0.472482 -0.390104 -4.94642 255 255 255
2.66384 -0.690925 -6.05025 255 255 255
2.6421 -0.691913 -6.05626 255 255 255
2.51629 -0.679225 -5.99858 255 255 255
1.07554 -0.868992 -7.95993 255 255 255
-0.361555 -0.442922 -4.99002 255 255 255
-0.748837 -0.410066 -4.86951 255 255 255
-1.12396 -0.38283 -4.72017 255 255 255
-0.458243 -0.450974 -5.04987 255 255 255
-0.448795 -0.444131 -4.9588 255 255 255
-0.0308828 -0.840483 -7.7353 255 255 255
-0.770594 -0.434787 -4.84469 255 255 255
-0.714233 -0.458235 -4.86566 255 255 255
-0.779421 -0.467209 -4.84556 255 255 255
-1.38138 -0.41405 -4.63325 255 255 255
-0.445854 -0.513501 -4.96146 255 255 255
0.41472 -0.946834 -7.81427 255 255 255
-1.4132 -0.422185 -4.62649 255 255 255
-1.33712 -0.445379 -4.64963 255 255 255
-1.43209 -0.447116 -4.61516 255 255 255
-0.691525 -0.522665 -4.87983 255 255 255
-0.674604 -0.527433 -4.88701 255 255 255
1.26389 -1.0919 -7.92497 255 255 255
-1.37226 -0.481624 -4.64174 255 255 255
-0.856817 -0.534306 -4.82041 255 255 255
-1.53814 -0.466363 -4.57996 255 255 255
-1.54424 -0.475902 -4.57974 255 255 255
-0.790715 -0.556259 -4.8481 255 255 255
0.890746 -1.13207 -7.9754 255 255 255
-0.797296 -0.575463 -4.84599 255 255 255
-0.388574 -0.628151 -4.99206 255 255 255
0.123233 -1.05367 -7.58288 255 255 255
-0.980838 -0.574034 -4.78485 255 255 255
-1.01433 -0.575491 -4.76898 255 255 255
-0.387668 -0.642558 -4.99812 255 255 255
-1.1458 -0.569322 -4.72643 255 255 255
-0.970514 -0.592138 -4.78763 255 255 255
-1.01469 -0.593103 -4.77322 255 255 255
-1.30858 -0.556737 -4.6315 255 255 255
-1.09668 -0.58587 -4.74208 255 255 255
-1.02707 -0.592813 -4.76809 255 255 255
-0.848982 -0.615282 -4.83125 255 255 255
-1.15528 -0.586465 -4.72123 255 255 255
0.74211 -1.21075 -8.01416 255 255 255
-1.33724 -0.574647 -4.66047 255 255 255
-0.365933 -0.689308 -5.00867 255 255 255
0.909035 -1.24703 -7.99742 255 255 255
0.612188 -1.21169 -7.86231 255 255 255
0.481235 -1.21512 -7.76087 255 255 255
0.768532 -1.28115 -8.04517 255 255 255
0.207894 -1.18072 -7.60862 255 255 255
-1.38853 -0.606389 -4.64078 255 255 255
-0.310916 -0.73107 -5.02977 255 255 255
0.783653 -1.30698 -8.01847 255 255 255
-0.92072 -0.671879 -4.81217 255 255 255
0.800042 -1.31545 -8.01047 255 255 255
-1.31788 -0.638226 -4.668 255 255 255
0.884908 -1.33195 -7.9809 255 255 255
-1.40415 -0.635449 -4.63605 255 255 255
-1.20602 -0.659561 -4.70947 255 255 255
-0.430938 -0.75694 -4.98693 255 255 255
-1.43909 -0.642078 -4.62516 255 255 255
0.901501 -1.36191 -7.96036 255 255 255
-1.34854 -0.660285 -4.65988 255 255 255
-1.59904 -0.634302 -4.56944 255 255 255
0.231099 -1.27465 -7.64605 255 255 255
-1.20949 -0.683012 -4.70889 255 255 255
0.707391 -1.36915 -7.94334 255 255 255
-1.57434 -0.656395 -4.57744 255 255 255
-1.1959 -0.704921 -4.71716 255 255 255
-1.1674 -0.716128 -4.72666 255 255 255
0.759861 -1.43911 -7.99778 255 255 255
-1.27485 -0.721715 -4.68997 255 255 255
-0.973678 -0.765906 -4.83586 255 255 255
0.612617 -1.41235 -7.84893 255 255 255
1.53155 -1.51039 -8.0618 255 255 255
-0.796478 -0.787826 -4.86186 255 255 255
-1.41955 -0.717015 -4.63437 255 255 255
-1.02817 -0.764916 -4.77919 255 255 255
-1.02762 -0.764742 -4.77913 255 255 255
-1.55375 -0.704512 -4.58792 255 255 255
-1.57027 -0.703724 -4.58222 255 255 255
-0.384096 -0.851088 -5.01061 255 255 255
-0.434335 -0.848923 -4.99267 255 255 255
-0.421258 -0.868059 -4.99955 255 255 255
0.0435509 -1.42165 -7.66262 255 255 255
-1.38264 -0.787102 -4.65429 255 255 255
0.961891 -1.59257 -7.96991 255 255 255
1.40702 -1.6465 -8.03402 255 255 255
1.48119 -1.66763 -8.09291 255 255 255
-0.576073 -0.924722 -4.95534 255 255 255
1.00714 -1.65573 -7.95388 255 255 255
-0.72546 -0.934107 -4.90299 255 255 255
-0.71414 -0.927541 -4.90478 255 255 255
0.840909 -1.66362 -7.96087 255 255 255
-1.05125 -0.89794 -4.77994 255 255 255
-0.373314 -0.996792 -5.02612 255 255 255
0.375508 -1.66934 -7.80209 255 255 255
0.622474 -1.70978 -7.84993 255 255 255
1.05118 -1.77521 -7.98358 255 255 255
-0.95902 -0.978859 -4.82139 255 255 255
-0.61717 -1.02863 -4.94732 255 255 255
-0.538425 -1.05077 -4.97464 255 255 255
-1.24989 -0.957424 -4.71546 255 255 255
0.835497 -1.8456 -7.99302 255 255 255
1.09593 -1.87019 -8.02795 255 255 255
-0.0151077 -1.72193 -7.66864 255 255 255
-0.828214 -1.04347 -4.87409 255 255 255
-1.36098 -0.966136 -4.66821 255 255 255
-1.24169 -0.984782 -4.71945 255 255 255
-0.841494 -1.05864 -4.86783 255 255 255
-0.819164 -1.05033 -4.87631 255 255 255
-0.346803 -1.14144 -5.04713 255 255 255
0.0622483 -1.79349 -7.71558 255 255 255
-1.51961 -0.972344 -4.57663 255 255 255
-1.06174 -1.05347 -4.79027 255 255 255
-1.20301 -1.05155 -4.76461 255 255 255
-0.835929 -1.10662 -4.8747 255 255 255
-0.835929 -1.10662 -4.8747 255 255 255
-0.606791 -1.14336 -4.95778 255 255 255
-0.616593 -1.14416 -4.95549 255 255 255
-1.04818 -1.08371 -4.79667 255 255 255
-1.04818 -1.08371 -4.79667 255 255 255
-0.0873368 -1.83118 -7.66737 255 255 255
-0.986628 -1.11605 -4.82231 255 255 255
-1.60967 -1.03254 -4.61372 255 255 255
-1.31033 -1.08571 -4.70412 255 255 255
-1.31033 -1.08571 -4.70412 255 255 255
-1.03498 -1.13909 -4.8133 255 255 255
-1.1581 -1.13467 -4.76287 255 255 255
-0.936903 -1.16752 -4.84259 255 255 255
-1.24507 -1.12704 -4.7312 255 255 255
1.78592 -2.014 -7.34935 255 255 255
-1.40178 -1.12808 -4.67511 255 255 255
0.988982 -2.17842 -8.03659 255 255 255
2.34794 -1.81186 -6.16249 255 255 255
1.23011 -2.20504 -8.00563 255 255 255
0.793757 -2.18988 -8.06621 255 255 255
1.09848 -2.21553 -8.02949 255 255 255
2.68995 -1.88811 -6.2709 255 255 255
-0.928172 -1.25861 -4.85331 255 255 255
-1.07359 -1.24794 -4.81223 255 255 255
1.22249 -2.29121 -7.97449 255 255 255
-1.37111 -1.22501 -4.69776 255 255 255
-0.638659 -1.34394 -4.96294 255 255 255
0.85826 -2.2773 -8.02698 255 255 255
-0.887432 -1.32609 -4.87447 255 255 255
2.85011 -1.95478 -6.13291 255 255 255
-1.41682 -1.25672 -4.725 255 255 255
-1.31874 -1.26073 -4.71964 255 255 255
2.78213 -1.95932 -6.12012 255 255 255
-1.10869 -1.31034 -4.79543 255 255 255
2.69549 -1.96249 -6.09434 255 255 255
-1.23089 -1.30309 -4.75048 255 255 255
2.63649 -1.96278 -6.07834 255 255 255
2.63649 -1.96278 -6.07834 255 255 255
2.56597 -1.96009 -6.04135 255 255 255
-0.991 -1.37182 -4.84233 255 255 255
-1.14124 -1.34488 -4.78494 255 255 255
-0.691202 -1.42606 -4.95224 255 255 255
-1.08093 -1.35913 -4.80915 255 255 255
-1.25122 -1.3337 -4.74691 255 255 255
-1.11323 -1.4043 -4.80212 255 255 255
-1.20142 -1.38927 -4.76757 255 255 255
-1.09217 -1.42032 -4.83464 255 255 255
-1.38245 -1.4099 -4.70624 255 255 255
2.35754 -2.08484 -5.90677 255 255 255
1.09004 -2.65033 -8.08236 255 255 255
0.910487 -2.64415 -8.07306 255 255 255
-0.606237 -1.59026 -5.00188 255 255 255
-0.903642 -1.62571 -4.90045 255 255 255
-0.492111 -1.72243 -5.05061 255 255 255
-0.46335 -1.72819 -5.06003 255 255 255
-0.950247 -1.64769 -4.89165 255 255 255
-0.896907 -1.66006 -4.90547 255 255 255
-0.640783 -1.71093 -5.00151 255 255 255
-1.03546 -1.64198 -4.858 255 255 255
-1.06799 -1.64658 -4.84491 255 255 255
-1.06477 -1.65525 -4.84902 255 255 255
-1.00335 -1.69407 -4.87387 255 255 255
1.08713 -2.92766 -8.06917 255 255 255
2.70331 -2.43648 -6.13726 255 255 255
-1.13964 -1.67894 -4.82623 255 255 255
-1.17534 -1.68408 -4.81257 255 255 255
-0.743682 -1.83377 -4.97239 255 255 255
-0.743331 -1.85248 -4.97037 255 255 255
-1.01043 -1.80907 -4.87807 255 255 255
-0.773009 -1.87801 -4.96136 255 255 255
-0.941248 -1.84861 -4.90305 255 255 255
-0.47187 -1.99687 -5.07311 255 255 255
-1.17031 -1.9025 -4.82666 255 255 255
0.941651 -3.37566 -8.11141 255 255 255
-0.937562 -2.00585 -4.91347 255 255 255
-0.494073 -2.12664 -5.07659 255 255 255
-0.906929 -2.09194 -4.92831 255 255 255
-0.9075 -2.09174 -4.92883 255 255 255
-0.725483 -2.15402 -4.99389 255 255 255
-0.903751 -2.14719 -4.93245 255 255 255
-1.15074 -2.09292 -4.84883 255 255 255
-0.463872 -2.39823 -5.10456 255 255 255
-0.68717 -2.6711 -5.05987 255 255 255
-0.693732 -2.70293 -5.0579 255 255 255
-0.549329 -2.78986 -5.10837 255 255 255
-0.825129 -2.79764 -5.01754 255 255 255
-0.995388 -2.83793 -4.9636 255 255 255
-0.727012 -3.06479 -5.06805 255 255 255
2.83858 2.88766 -5.97299 255 255 255
1.21506 3.99849 -9.41291 255 255 255
1.43574 3.55786 -8.23128 255 255 255
-0.556625 3.21529 -7.40811 255 255 255
1.67674 3.26794 -7.74099 255 255 255
2.03798 3.15182 -7.50619 255 255 255
2.33193 2.6532 -5.94806 255 255 255
2.09766 3.14062 -7.53836 255 255 255
2.70452 2.58639 -5.96047 255 255 255
1.41906 3.17338 -8.15866 255 255 255
2.60576 2.46307 -5.9103 255 255 255
-0.431219 2.83767 -7.46924 255 255 255
2.28163 2.44205 -6.07419 255 255 255
-0.118846 2.83059 -7.57776 255 255 255
-0.248806 2.82556 -7.55721 255 255 255
2.29793 2.37943 -6.02182 255 255 255
-0.390365 2.77475 -7.50616 255 255 255
2.29537 2.2861 -5.74052 255 255 255
1.55853 2.91522 -8.06114 255 255 255
1.98123 2.74436 -7.4434 255 255 255
2.17371 2.68478 -7.34241 255 255 255
0.26161 2.62097 -7.2654 255 255 255
2.40592 2.22599 -5.78791 255 255 255
-0.0639031 2.71328 -7.63413 255 255 255
0.358723 2.60269 -7.23521 255 255 255
2.57736 2.23625 -5.86609 255 255 255
-0.699219 2.57618 -7.41342 255 255 255
-0.500071 2.57142 -7.48913 255 255 255
1.27678 2.7279 -8.12828 255 255 255
-0.520706 2.53201 -7.47889 255 255 255
0.25022 2.45361 -7.33901 255 255 255
2.49389 2.06025 -5.84575 255 255 255
2.91874 2.06115 -6.02372 255 255 255
1.77444 2.3872 -7.52189 255 255 255
0.641636 2.47823 -7.90913 255 255 255
0.678258 2.47907 -7.9199 255 255 255
-0.16036 2.35685 -7.62186 255 255 255
1.23469 2.45808 -8.13048 255 255 255
-0.619309 2.2766 -7.46588 255 255 255
2.54291 1.88707 -5.87722 255 255 255
1.27784 2.35033 -8.14907 255 255 255
1.44854 2.35576 -8.2107 255 255 255
-0.255244 2.20563 -7.60355 255 255 255
2.82925 1.85055 -6.0079 255 255 255
2.4847 1.78998 -5.86623 255 255 255
2.01787 2.13085 -7.54641 255 255 255
0.761406 2.22207 -7.97403 255 255 255
2.62188 1.79253 -5.92176 255 255 255
1.05747 2.21903 -8.0737 255 255 255
2.25344 1.99475 -7.10134 255 255 255
0.755289 2.1763 -7.96441 255 255 255
2.16789 1.83068 -6.29894 255 255 255
-0.613874 2.06814 -7.4792 255 255 255
-1.23785 2.02794 -7.27239 255 255 255
0.736654 2.12139 -7.96836 255 255 255
1.83482 1.98778 -7.47347 255 255 255
1.54101 2.06446 -8.02214 255 255 255
0.874973 2.06745 -8.02539 255 255 255
2.04933 1.79067 -6.66918 255 255 255
0.982369 2.03965 -8.06436 255 255 255
-0.48176 1.95096 -7.53811 255 255 255
1.35009 2.03098 -8.20226 255 255 255
0.698484 1.94928 -7.96957 255 255 255
1.31967 1.88351 -7.78424 255 255 255
2.05822 1.64866 -6.53202 255 255 255
1.88123 1.73029 -7.13476 255 255 255
0.22302 1.77404 -7.41936 255 255 255
0.602319 1.79911 -7.59108 255 255 255
0.527359 1.75739 -7.38135 255 255 255
-0.107374 1.80962 -7.69714 255 255 255
2.08439 1.57673 -6.45981 255 255 255
2.88859 1.48594 -6.02294 255 255 255
1.30182 1.76828 -7.79675 255 255 255
1.15207 1.80006 -8.16248 255 255 255
0.197428 1.69468 -7.40947 255 255 255
0.398964 1.63298 -7.49187 255 255 255
0.401063 1.63332 -7.49075 255 255 255
2.1833 1.39399 -6.18151 255 255 255
2.23744 1.36917 -6.06383 255 255 255
1.81644 1.57184 -7.42527 255 255 255
1.83938 1.52473 -7.23615 255 255 255
1.58696 1.62679 -7.94606 255 255 255
0.999823 1.58236 -7.68156 255 255 255
2.95205 1.31833 -6.07317 255 255 255
2.13907 1.35752 -6.36142 255 255 255
2.13907 1.35752 -6.36142 255 255 255
1.87456 1.43671 -7.13652 255 255 255
0.959478 1.53291 -7.77068 255 255 255
0.0721397 1.47135 -7.37581 255 255 255
0.815166 1.49717 -7.71976 255 255 255
1.2284 1.50982 -7.8779 255 255 255
1.29372 1.49192 -7.75404 255 255 255
0.649869 1.47962 -7.63457 255 255 255
1.90782 1.36554 -7.0286 255 255 255
2.5806 1.20035 -5.94207 255 255 255
-0.0554827 1.40413 -7.34676 255 255 255
1.8029 1.35578 -7.30654 255 255 255
2.52158 1.17394 -5.91175 255 255 255
0.688985 1.40914 -7.61369 255 255 255
-0.344935 1.39283 -7.30509 255 255 255
0.885901 1.37682 -7.70908 255 255 255
1.59881 1.39096 -7.95917 255 255 255
1.84417 1.29473 -7.24781 255 255 255
2.18185 1.15867 -6.20904 255 255 255
0.706608 1.31889 -7.63892 255 255 255
0.705977 1.31933 -7.63923 255 255 255
-0.445793 1.29597 -7.3367 255 255 255
2.83043 1.08424 -6.03991 255 255 255
-0.31259 1.27447 -7.28115 255 255 255
1.69237 1.25714 -7.65576 255 255 255
0.747666 1.25363 -7.62813 255 255 255
1.28074 1.24328 -7.79902 255 255 255
0.656212 1.23209 -7.63443 255 255 255
-0.25694 1.2166 -7.29341 255 255 255
-0.29411 1.21661 -7.28583 255 255 255
2.98866 1.0012 -6.09774 255 255 255
0.0174778 1.15761 -7.45631 255 255 255
0.331007 1.15891 -7.6507 255 255 255
2.2099 0.963203 -6.13094 255 255 255
2.72799 0.944275 -6.00898 255 255 255
1.04474 1.13448 -7.8938 255 255 255
0.664377 1.11646 -7.66185 255 255 255
1.26603 1.10678 -7.78392 255 255 255
0.412788 1.10964 -7.67681 255 255 255
0.802279 1.09324 -7.69085 255 255 255
0.802226 1.09308 -7.6895 255 255 255
-0.119205 1.07745 -7.38033 255 255 255
-0.327475 1.06396 -7.26857 255 255 255
-0.2462 1.05038 -7.36003 255 255 255
0.386982 1.04847 -7.63301 255 255 255
1.72033 1.01631 -7.59677 255 255 255
0.141172 1.04644 -7.58615 255 255 255
1.63427 1.0328 -7.87909 255 255 255
0.726079 1.02826 -7.59524 255 255 255
1.70064 0.977494 -7.42877 255 255 255
1.61933 0.997425 -7.69731 255 255 255
1.49701 0.99655 -7.96904 255 255 255
0.812173 0.974886 -7.6951 255 255 255
1.28351 0.972556 -7.81055 255 255 255
1.61011 0.955028 -7.81727 255 255 255
2.38093 0.792869 -5.86966 255 255 255
0.855198 0.962512 -7.71282 255 255 255
2.25143 0.804548 -6.00466 255 255 255
2.20566 0.813338 -6.17621 255 255 255
2.58263 0.791085 -5.95434 255 255 255
0.831425 0.956222 -7.72212 255 255 255
0.827714 0.954781 -7.69385 255 255 255
2.13865 0.823053 -6.32807 255 255 255
2.80399 0.79002 -6.0433 255 255 255
1.37673 0.937474 -7.83602 255 255 255
2.00627 0.838243 -6.7091 255 255 255
1.79253 0.871142 -7.22323 255 255 255
1.83307 0.873512 -7.23308 255 255 255
1.7835 0.887506 -7.47599 255 255 255
1.69986 0.891747 -7.5547 255 255 255
0.461027 0.924876 -7.64571 255 255 255
1.71816 0.874876 -7.62302 255 255 255
0.874515 0.877964 -7.71429 255 255 255
1.75696 0.837475 -7.47353 255 255 255
2.55659 0.715001 -5.97653 255 255 255
2.67191 0.708762 -6.02367 255 255 255
2.91125 0.699054 -6.11351 255 255 255
2.94401 0.690646 -6.11745 255 255 255
1.79628 0.778836 -7.44198 255 255 255
0.0335917 0.823211 -7.49008 255 255 255
-0.313291 0.809834 -7.26897 255 255 255
